ply
format ascii 1.0
element vertex 789
property double x
property double y
property double z
end_header
584.000000000000000 469.576470588235281 1486.547021799453887
584.101123595505669 487.303370786516837 1418.069651964777677
584.235955056179819 504.561797752809014 1417.503911643828815
584.369047619047592 521.988095238095184 0.000000000000000
583.027777777777828 660.305555555555543 1303.598600985724261
595.142857142857110 205.809523809523796 1350.642000187929852
595.846153846153811 66.153846153846160 1393.299183022057377
595.611111111111086 117.611111111111114 1343.926638102273728
595.937500000000000 135.687500000000000 1395.248382257565936
597.450000000000045 48.899999999999999 1326.888010646287512
596.500000000000000 83.000000000000000 1313.296109016148193
595.000000000000000 189.000000000000000 1404.953514172824271
600.012658227848078 243.556962025316466 1424.976819656752014
600.308641975308660 260.950617283950635 1487.965460320318016
600.256097560975604 278.268292682926813 1425.427278619900108
597.399999999999977 14.400000000000000 1322.383270504717530
600.926829268292636 365.719512195121979 0.000000000000000
601.024390243902417 382.987804878048792 0.000000000000000
601.134831460674150 400.382022471910091 0.000000000000000
601.375000000000000 417.602272727272748 0.000000000000000
601.385542168674647 435.228915662650593 1419.657514615156970
601.583333333333371 452.416666666666686 1486.822197463791781
601.670731707317032 469.890243902439011 1418.789534360580774
601.744186046511572 487.337209302325562 1486.497239129287891
601.857142857142890 504.500000000000000 1355.929172166882381
601.802325581395394 522.151162790697640 0.000000000000000
602.159090909090878 539.329545454545496 1354.958143346612815
604.109375000000000 706.984375000000000 0.000000000000000
603.500000000000000 687.666666666666629 0.000000000000000
609.384615384615358 324.538461538461547 1393.392625424803555
608.399999999999977 357.800000000000011 0.000000000000000
611.899999999999977 223.099999999999994 1421.657533509049699
613.687500000000000 119.875000000000000 1339.313491117932472
612.842105263157919 206.157894736842110 1294.386476966193868
614.555555555555543 67.333333333333329 1330.254959211637242
614.827586206896513 83.896551724137936 0.000000000000000
614.100000000000023 101.950000000000003 1336.491883775075621
614.687500000000000 137.625000000000000 1331.900692985212572
613.500000000000000 189.800000000000011 1341.559290521579442
614.714285714285666 172.428571428571416 1390.576701736937594
616.852459016393482 244.540983606557376 1365.408745075457773
617.459459459459481 261.135135135135158 1421.990301673645035
617.982758620689651 366.896551724137908 1419.715701400389207
618.654320987654273 383.259259259259238 0.000000000000000
618.831325301204856 400.554216867469904 0.000000000000000
619.065217391304373 417.739130434782624 0.000000000000000
619.155555555555566 435.288888888888891 1486.884856418588242
619.202247191011224 452.528089887640476 1487.060640634182619
619.232558139534831 469.709302325581405 1487.099652633200776
619.426966292134807 487.224719101123583 1485.690350263118944
616.500000000000000 33.500000000000000 1371.669091673794128
619.593023255813932 504.569767441860449 1299.129186117296058
619.685393258426984 521.842696629213492 1356.157856210854561
619.623529411764707 539.376470588235293 1485.485781788703207
620.727272727272748 670.484848484848499 1356.237361999967106
622.239436619718276 689.225352112676092 1348.825971764899123
624.500000000000000 341.000000000000000 1404.953517920639570
627.000000000000000 307.789473684210520 1385.856887346182475
627.200000000000045 343.399999999999977 1395.330551778252584
629.952380952380963 240.619047619047620 1466.175675006552865
628.333333333333371 290.888888888888914 1385.489432513203610
627.500000000000000 325.500000000000000 1387.236581252187079
630.375000000000000 224.250000000000000 1463.533940728174912
631.380952380952408 207.428571428571416 1288.004643061301294
631.333333333333371 120.111111111111114 1395.566568854378147
632.250000000000000 138.050000000000011 1334.237260966685426
631.545454545454504 172.818181818181813 1333.820572294062003
633.533333333333303 68.400000000000006 1330.632960183624164
632.615384615384642 86.230769230769226 1329.832815264861893
632.937500000000000 102.687500000000000 1331.612797501722753
636.264367816091976 383.448275862068954 0.000000000000000
636.337349397590401 400.831325301204799 0.000000000000000
633.000000000000000 33.500000000000000 1317.459431878567102
636.726190476190482 418.000000000000000 0.000000000000000
636.568181818181870 435.397727272727252 1487.734986847023947
636.600000000000023 452.541176470588255 1420.257767409395456
636.852272727272748 469.988636363636374 1487.232157664450142
636.853658536585385 487.426829268292693 1418.901840933809808
637.083333333333371 504.702380952380963 1418.383740856113036
637.260869565217376 521.956521739130380 1246.838424327751454
637.404494382022449 539.426966292134807 1417.420047984715666
636.578947368421041 367.815789473684220 1485.487097314652374
638.816326530612287 652.632653061224460 0.000000000000000
639.784810126582329 671.050632911392427 0.000000000000000
640.425925925925981 689.222222222222172 1291.239848098281982
643.615384615384642 342.461538461538453 1398.113356568586369
645.100000000000023 325.300000000000011 1389.027117839071479
644.142857142857110 358.285714285714278 0.000000000000000
647.037037037037067 258.111111111111086 1406.616895503942942
646.157894736842081 274.842105263157919 1373.235781495673564
646.049999999999955 309.100000000000023 1322.385557694739873
646.000000000000000 292.500000000000000 1375.098266714936472
648.083333333333371 207.666666666666657 1293.254357035351404
647.333333333333371 241.916666666666657 1477.772649120953020
649.666666666666629 121.111111111111114 1395.448552571823939
650.000000000000000 138.666666666666657 1460.398809091677322
650.000000000000000 173.000000000000000 1276.687005583220753
650.049999999999955 190.699999999999989 1394.460932580784629
648.000000000000000 225.500000000000000 1475.427293660822670
650.799999999999955 50.000000000000000 1326.034986914090496
650.416666666666629 85.583333333333329 0.000000000000000
650.090909090909122 103.363636363636360 0.000000000000000
653.383333333333326 367.399999999999977 1420.997313168596747
653.931034482758605 383.528735632183896 1489.776034926595230
654.068181818181870 400.863636363636374 0.000000000000000
653.919540229885001 418.252873563218373 0.000000000000000
654.307692307692264 435.461538461538453 0.000000000000000
654.384615384615358 452.560439560439534 1419.138584527177500
654.444444444444457 470.011111111111120 1486.921703444842251
650.250000000000000 15.250000000000000 1394.143254289501101
651.333333333333371 33.916666666666664 1324.332213781586916
654.500000000000000 487.333333333333314 1419.373015238469407
654.690476190476147 504.702380952380963 1356.781205602543878
654.715909090909122 522.000000000000000 1300.500999298430997
654.712643678160930 539.287356321839070 0.000000000000000
655.109890109890102 556.538461538461547 1355.877590886870166
656.470588235294144 634.573529411764753 0.000000000000000
657.306818181818130 653.318181818181870 0.000000000000000
658.100840336134411 671.310924369747909 1148.354673847323966
658.020833333333371 689.052083333333371 1240.021082261348738
658.104651162790674 706.534883720930225 1237.931905698817218
657.654545454545428 723.763636363636351 1147.297607146738983
660.799999999999955 358.699999999999989 1467.554152903129761
661.750000000000000 343.750000000000000 1459.958320987014758
664.727272727272748 275.681818181818187 1366.830380906443679
663.000000000000000 326.714285714285722 1447.471839308601147
668.458333333333371 191.666666666666657 1332.284755593120281
668.025641025640994 209.846153846153840 1329.447326162213358
668.354166666666629 245.000000000000000 1330.029672349208113
668.690476190476147 262.261904761904759 1332.813195879562727
667.882352941176464 85.588235294117652 0.000000000000000
667.333333333333371 120.888888888888886 1335.587160119051077
667.299999999999955 155.800000000000011 1334.075460302799002
668.736842105263122 227.526315789473671 1450.512155274783481
666.000000000000000 292.500000000000000 1427.437633356897095
671.279069767441911 383.720930232558146 0.000000000000000
671.357142857142890 401.190476190476204 0.000000000000000
671.436781609195350 418.390804597701162 0.000000000000000
669.166666666666629 16.083333333333332 1330.357105491491211
668.200000000000045 33.799999999999997 1272.649975499893571
667.500000000000000 103.500000000000000 1443.853161261423338
671.214285714285666 368.119047619047592 1358.421227690236719
671.736263736263709 435.538461538461547 1487.653088194490465
671.722222222222172 452.888888888888914 1488.094949721177500
671.793103448275815 470.252873563218373 1420.311061930069400
672.079545454545496 487.409090909090935 0.000000000000000
672.120879120879067 504.549450549450569 1357.007184540741264
672.430107526881670 521.956989247311867 1300.693053773747124
668.333333333333371 69.333333333333329 1389.978158980131866
672.560439560439590 539.329670329670307 1485.453130181160077
672.418604651162809 556.523255813953483 1300.393775750063696
669.500000000000000 49.000000000000000 1268.833494575894292
669.000000000000000 173.500000000000000 1446.520182175202308
673.567567567567608 616.567567567567608 0.000000000000000
675.264705882352928 635.186274509803866 0.000000000000000
675.508196721311492 653.459016393442653 1242.847658163792403
675.607476635513990 670.925233644859759 1242.181684555615220
675.214285714285666 705.971428571428532 1192.029990395833920
675.684210526315837 688.157894736842081 1150.585077611735642
674.883720930232585 723.000000000000000 1245.291276491343069
679.000000000000000 360.000000000000000 1399.591107117031470
681.157894736842081 310.157894736842081 1375.046576582552007
681.100000000000023 327.800000000000011 1381.661158639751193
682.600000000000023 294.399999999999977 1368.483933081352461
685.000000000000000 191.500000000000000 1234.102141440542027
685.250000000000000 209.050000000000011 1342.705509377836734
685.954545454545496 278.500000000000000 1393.546926098406857
687.000000000000000 70.040000000000006 1327.364224759274975
686.687500000000000 87.593750000000000 1326.234820513151362
686.925925925925981 105.851851851851848 1427.286257317613263
686.891891891891873 122.702702702702709 1374.836699610854112
686.391304347826122 140.043478260869563 1432.464712697621053
685.399999999999977 226.599999999999994 1340.905197782343294
685.615384615384642 244.615384615384613 1388.233087355120006
685.714285714285666 262.500000000000000 1335.432749670365638
688.022727272727252 368.477272727272748 1424.171017798584899
688.658823529411734 383.929411764705890 1490.566206844735007
688.827586206896513 401.183908045977034 1489.635358252479818
689.000000000000000 418.428571428571445 1489.177036172533462
689.208791208791240 435.505494505494482 1488.963717391245609
689.065934065934016 453.021978021978043 1488.706909712493371
689.358695652173878 470.217391304347814 1420.135220275427855
685.500000000000000 16.500000000000000 1279.798981016909238
686.857142857142890 52.071428571428569 1331.353801174966748
685.000000000000000 175.000000000000000 1388.111814853971055
689.500000000000000 487.500000000000000 1487.178852622490695
689.670454545454504 504.670454545454561 1300.691520913158456
689.728260869565247 522.000000000000000 1301.529403396164525
689.852272727272748 539.250000000000000 1487.011661481225019
690.875000000000000 598.281250000000000 0.000000000000000
692.322916666666629 617.177083333333371 0.000000000000000
693.056910569105639 635.284552845528424 1147.407505073839047
693.432203389830534 652.898305084745743 1293.872915993298193
693.281818181818153 670.318181818181870 1241.227789417499480
693.010869565217376 687.336956521739125 1243.508311646216725
692.358490566037744 704.471698113207594 1072.347941836941800
690.842105263157919 720.842105263157919 1349.248254234594469
700.000000000000000 309.000000000000000 1313.190726686560311
705.333333333333371 193.958333333333343 1323.058005509099985
704.071428571428555 280.928571428571445 1332.390412988747812
706.089887640449433 384.146067415730329 1423.332408694466039
705.750000000000000 401.175000000000011 1424.357280243160631
705.292307692307645 418.815384615384630 1426.264784391558578
705.622641509433947 176.849056603773590 1319.442104090580870
704.971428571428532 211.400000000000006 1424.177806752365541
704.827586206896513 229.000000000000000 1426.841771666878003
704.842105263157919 246.421052631578959 1427.367344993466304
706.595238095238074 453.321428571428555 1487.832724585832239
706.654761904761926 470.428571428571445 1488.423565219233069
706.662790697674382 487.511627906976742 1487.814612876133197
706.781609195402325 504.747126436781627 1250.108196891118723
706.955056179775283 522.112359550561791 1202.517072751072419
707.315789473684163 539.378947368421109 1301.690906549599276
705.769230769230717 18.423076923076923 1321.261370675102171
706.129032258064512 36.709677419354840 1364.572122653970382
706.228571428571399 54.428571428571431 1314.465940059906643
706.731707317073187 107.853658536585371 1357.518470064734174
706.756756756756772 142.594594594594582 1360.316733470996269
706.274999999999977 159.849999999999994 1420.875904161002154
704.727272727272748 370.090909090909065 1444.232685719460505
706.814814814814781 72.407407407407405 1353.726940918302944
707.170731707317032 90.341463414634148 1352.911808131250837
706.921052631578959 125.052631578947370 1359.633720841363356
705.666666666666629 264.250000000000000 1370.741652490119577
707.314285714285688 580.142857142857110 0.000000000000000
709.295454545454504 599.409090909090878 0.000000000000000
719.388888888888914 617.062091503267993 1299.651200894716339
710.838235294117680 634.816176470588289 1297.596529945430802
710.407079646017678 652.415929203539804 1244.191759542429281
710.569767441860449 669.779069767441911 1245.076671047615946
709.283018867924511 686.603773584905639 1398.414598706217703
713.923076923076906 708.615384615384642 0.000000000000000
714.250000000000000 360.583333333333314 0.000000000000000
716.000000000000000 345.000000000000000 0.000000000000000
721.131578947368439 384.578947368421041 1370.007267034702409
723.448275862068954 454.551724137931046 1489.202814776978585
724.000000000000000 470.459770114942501 1488.783394154402231
724.192771084337323 487.542168674698814 1359.642750351240011
723.837209302325618 283.534883720930225 1418.222107257970947
723.371428571428623 300.685714285714312 1419.403940389913942
723.763157894736878 317.684210526315780 1420.193404956081849
722.633333333333326 334.366666666666674 1369.993418187117186
724.432098765432102 504.950617283950635 1420.206662936340535
724.523255813953483 522.162790697674382 1202.521524308398966
724.730337078651701 539.168539325842744 1358.880664577391826
724.862745098039227 178.843137254901961 1305.833887463975316
724.488372093023258 196.325581395348848 1306.999336489641792
725.162790697674382 214.674418604651152 1407.964409659365174
724.562500000000000 266.291666666666686 1414.024860633543312
727.398437500000000 599.546875000000000 1303.373414577404674
724.666666666666629 20.500000000000000 1307.541958365316987
725.666666666666629 74.638888888888886 1293.702827394818769
725.558139534883708 92.069767441860463 1294.371490820277359
725.450000000000045 126.875000000000000 1347.411564878203080
725.500000000000000 144.500000000000000 1254.763046570380311
725.577777777777783 162.044444444444451 1353.391185569340223
725.266666666666652 231.977777777777789 0.000000000000000
725.071428571428555 249.309523809523796 1472.802939744492733
725.967741935483900 580.935483870967687 1362.375059498793007
727.352941176470608 634.911764705882320 1341.613698308301991
725.771428571428601 39.000000000000000 1301.166193328561803
725.962962962962933 56.888888888888886 1297.015957358726610
726.222222222222172 407.111111111111086 0.000000000000000
727.846153846153811 441.230769230769226 0.000000000000000
728.333333333333371 424.500000000000000 0.000000000000000
731.069444444444457 655.763888888888914 0.000000000000000
731.734939759036138 674.216867469879503 1273.637741855433205
732.025974025974051 692.558441558441586 0.000000000000000
732.394736842105317 710.381578947368439 1373.063542967703142
733.103896103896091 728.779220779220736 1369.322372902089910
731.500000000000000 377.500000000000000 0.000000000000000
741.413793103448256 470.482758620689651 1488.772587717279293
741.102564102564088 455.641025641025635 0.000000000000000
741.448275862068954 487.528735632183896 1421.934116832736663
741.741176470588243 504.764705882352928 1487.309672136403151
743.320754716981128 303.188679245283026 1349.910265987578214
742.379310344827559 354.482758620689651 1473.490481637144967
741.652173913043498 371.217391304347814 1415.652958238023984
743.627906976744157 216.209302325581405 1250.453683183586236
744.132075471698158 233.679245283018872 1463.365467472664022
743.777777777777828 250.777777777777771 1402.550975395247406
743.963636363636397 268.254545454545450 1296.545561885440975
743.740000000000009 285.819999999999993 1348.995224362255840
743.617021276595779 320.489361702127667 1350.940972538209508
743.085714285714289 337.571428571428555 1303.587224518202675
743.873239436619770 581.732394366197127 1352.928657034827893
743.653846153846189 180.730769230769226 1294.046211191033535
745.156250000000000 129.156250000000000 1285.362393514039923
744.794117647058783 146.323529411764696 1461.488589169631723
743.916666666666629 198.916666666666657 1343.667657558187784
747.805970149253767 78.492537313432834 1265.461777074752035
747.803030303030255 96.075757575757578 0.000000000000000
747.160714285714334 112.785714285714292 1271.670755471305711
747.723076923076974 602.307692307692264 1283.552011771524803
748.222222222222172 620.611111111111086 0.000000000000000
746.222222222222172 24.500000000000000 1281.479131794703790
747.422222222222217 42.955555555555556 1269.439111531453818
748.686868686868706 638.787878787878753 1327.628104815492861
749.161616161616166 656.555555555555543 1323.505373975971452
746.125000000000000 442.875000000000000 0.000000000000000
749.775510204081684 675.051020408163254 1318.715194502591203
746.333333333333371 409.666666666666686 0.000000000000000
746.000000000000000 426.500000000000000 0.000000000000000
751.481481481481524 729.123456790123441 1309.415352461876864
758.795180722891587 487.554216867469904 1488.788569806182750
758.602564102564088 504.923076923076906 1489.737879656695441
758.864864864864899 455.702702702702709 1442.081421767832126
759.266666666666652 406.199999999999989 1361.979442450154920
760.236842105263122 389.947368421052659 1408.426154705345880
762.540983606557347 252.557377049180332 1338.510630720714971
762.836363636363672 270.000000000000000 1241.323385013948609
762.053571428571445 286.875000000000000 1291.009762095701944
761.209302325581348 304.302325581395337 1246.663028450112051
762.583333333333371 322.116666666666674 1290.811389437076969
762.230769230769283 339.269230769230774 1292.143498211604992
761.619047619047592 356.738095238095241 1401.267777350287815
761.416666666666629 373.611111111111086 1401.749279487142985
762.639999999999986 146.900000000000006 1336.011597353317939
762.937500000000000 235.520833333333343 1393.639808700211688
762.500000000000000 182.500000000000000 0.000000000000000
762.451612903225850 217.709677419354847 1393.851568383475069
764.446808510638334 584.106382978723445 1287.761880555390690
767.316326530612287 62.408163265306122 1358.039069395554407
765.360655737704974 131.196721311475414 0.000000000000000
762.913043478260875 200.217391304347814 1284.079403859658441
765.446808510638334 8.361702127659575 0.000000000000000
766.127272727272725 26.836363636363636 1224.684763212079133
766.636363636363626 44.389610389610390 1261.280879784725812
767.285714285714334 80.230769230769226 1493.808199388304274
766.965909090909122 97.465909090909093 1365.047127387998216
766.621621621621671 114.662162162162161 1431.494910948450524
767.409523809523762 621.952380952380963 1270.510792488773404
768.276190476190436 640.000000000000000 1267.688414079414997
768.628571428571377 658.276190476190436 1264.284515629967473
768.913461538461547 676.336538461538453 1260.862916207215903
769.865384615384642 694.528846153846189 1257.095889141326097
776.060975609756042 487.792682926829286 1422.319016694961192
775.547619047619037 455.285714285714278 1381.650146519558348
777.625000000000000 424.500000000000000 1416.092533396162708
779.485714285714266 409.257142857142867 1466.116473369991581
780.745098039215691 548.509803921568619 1352.913705633443215
781.116666666666674 253.599999999999994 1280.621944152775313
781.142857142857110 305.591836734693857 1333.339842528901499
780.672727272727229 323.254545454545450 1334.582642517865452
780.703703703703695 340.629629629629619 1238.401448422916246
780.770833333333371 357.916666666666686 1285.076047830527841
780.584905660377331 375.433962264150921 1336.463900603672073
780.195121951219562 392.414634146341484 1339.948116340945035
782.052083333333371 566.791666666666629 1341.447847506770813
782.010526315789434 585.168421052631629 1394.842973180222771
780.666666666666629 164.933333333333337 1451.801780734916065
781.031250000000000 183.656250000000000 0.000000000000000
780.785714285714334 201.285714285714278 1279.669531658236110
781.446808510638334 236.489361702127667 1385.212186503885050
784.078947368421041 603.982456140350905 1273.187466897279592
784.542168674698814 115.903614457831324 1257.873585198068213
783.698630136986253 132.520547945205493 1317.085200471077997
781.391304347826122 219.217391304347814 1448.839458157598756
781.518518518518476 288.888888888888914 1449.697980743374274
785.072580645161338 622.080645161290363 992.750134653096893
784.314814814814781 10.055555555555555 1260.295572308298915
784.789473684210520 45.539473684210527 1210.876436758607042
785.516853932584240 63.786516853932582 972.917970254678835
785.590000000000032 81.269999999999996 1359.288061423428644
785.113402061855709 98.690721649484530 944.163444307308737
785.508196721311492 640.237704918032819 1319.339628388755955
786.138211382113809 658.349593495934982 1315.349504367957934
784.950000000000045 27.899999999999999 1175.423300915588698
786.841269841269877 676.484126984126988 1259.480175258503095
792.413793103448256 487.155172413793082 1415.856447048830432
794.274999999999977 458.000000000000000 1368.892194744814560
795.659090909090878 442.363636363636374 1480.186296872084540
796.955882352941217 529.250000000000000 1359.167893058604477
798.045454545454504 547.931818181818130 1297.692841570273913
797.288888888888891 426.688888888888869 1405.621733757613129
800.009259259259238 567.537037037037067 1337.817091212841206
799.370370370370324 237.425925925925924 1381.937585866098516
799.000000000000000 307.000000000000000 1384.262604828433723
799.272727272727252 324.600000000000023 1231.976095368140022
798.666666666666629 410.644444444444446 1286.608246301688951
799.674418604651123 202.162790697674410 1182.589296420346272
799.395833333333371 254.312500000000000 1328.161612227007254
799.620000000000005 341.899999999999977 1276.726526407076108
799.615384615384642 359.653846153846132 1277.598090821364394
799.431372549019557 377.235294117647072 1326.837817050018657
799.354166666666629 394.125000000000000 1280.197163661357308
801.235849056603797 585.773584905660414 1330.000879939388369
802.114035087719344 604.298245614035068 1271.533339426831162
802.561538461538476 621.923076923076906 1269.084532754967768
802.415730337078685 116.348314606741567 1208.477469607483727
801.605263157894683 133.171052631578959 916.898876449879253
799.681818181818130 184.818181818181813 1444.416643355506721
800.117647058823536 220.235294117647072 1380.732883216330720
803.231404958677672 640.388429752066145 1173.175003901754508
803.489130434782624 82.282608695652172 1203.185664739195545
803.265306122449033 99.275510204081627 1304.849948736019769
803.930769230769215 658.492307692307691 1261.667276506083226
804.193548387096826 676.379032258064512 1258.917594065947242
802.785714285714334 10.946428571428571 1256.199676610599454
803.096774193548413 28.983870967741936 1305.252702638574647
802.346938775510239 65.306122448979593 1427.519546369552245
802.600000000000023 44.000000000000000 1499.499778206036126
805.397727272727252 712.761363636363626 1250.190544609174367
814.666666666666629 530.360000000000014 1302.179313373876539
814.538461538461547 444.057692307692321 1297.465090908543743
814.049999999999955 460.250000000000000 1357.424966048599799
816.217391304347871 548.815217391304373 1244.344620658423082
816.413793103448256 411.086206896551744 1235.326560468681691
815.745098039215691 427.823529411764696 1342.311987090370167
817.518867924528308 567.773584905660414 1188.377828502714010
817.370370370370324 149.851851851851848 1225.218085024200946
817.672727272727229 308.181818181818187 1322.131779081395962
817.722222222222172 325.703703703703695 1224.506081975607231
817.274509803921546 395.235294117647072 1228.939384571463961
818.313043478260852 585.617391304347848 1277.259238208040188
818.888888888888914 133.791666666666657 1263.773873211209320
817.846153846153811 203.282051282051270 1269.594692863933005
817.619047619047592 220.952380952380963 1322.626245040602043
817.711538461538453 238.365384615384613 1379.541992400802883
817.687500000000000 255.729166666666657 1271.980442577357280
817.731707317073187 273.439024390243901 1271.721670507831277
817.833333333333371 343.129629629629619 1271.619287933889154
817.422222222222217 360.955555555555577 1270.909797549714767
817.441176470588289 378.235294117647072 1226.617943679369091
819.788135593220318 622.593220338983087 1133.385903392509817
820.299999999999955 117.266666666666666 1162.787966289340147
817.861111111111086 185.611111111111114 1222.298840558743677
817.679999999999950 291.639999999999986 1323.552668319368195
820.338983050847446 640.694915254237344 1263.127578866107797
820.990476190476215 658.761904761904816 1260.965886174018806
820.293103448275815 11.793103448275861 1256.469294929210946
821.109375000000000 29.703125000000000 1251.747749807082755
821.088888888888846 82.877777777777780 1303.361378182802127
821.156250000000000 100.031250000000000 1158.803582260125495
821.416666666666629 676.375000000000000 1258.275033693387059
820.500000000000000 709.770833333333371 1319.188352924154287
821.187500000000000 727.916666666666629 1371.866787259455577
828.057142857142821 491.428571428571445 1328.900308132313285
832.092592592592609 460.814814814814838 1251.138472144225489
830.718750000000000 477.343750000000000 1308.268551513527655
832.923076923076906 428.269230769230774 1342.412543138204910
832.896551724137908 444.586206896551744 1292.287240179978880
832.138888888888914 530.388888888888914 1477.623000958832790
833.000000000000000 548.902439024390219 1347.673136647706542
834.509090909090901 149.745454545454550 1225.118932705524230
834.395348837209326 412.418604651162809 1392.067003416593252
836.577464788732414 134.154929577464799 1127.243907165536029
834.971428571428532 168.828571428571422 1269.795944317219210
835.744680851063777 204.468085106382972 1267.188167450974561
835.681818181818130 221.681818181818187 1319.830395426195082
835.478260869565247 239.021739130434781 1320.691543522664460
835.789473684210520 256.508771929824547 1266.851070800704974
835.562500000000000 291.770833333333314 1319.278935000091678
835.872727272727275 309.127272727272725 1220.360078186739656
835.693877551020364 326.775510204081627 1267.422040715488947
834.799999999999955 567.355555555555611 1287.207169422533980
837.410714285714334 12.250000000000000 1257.848831189840894
838.568181818181870 83.454545454545453 1251.525031035949951
838.479591836734699 100.326530612244895 1252.274682719389830
837.825581395348877 117.453488372093020 944.556410158238236
835.531250000000000 186.656250000000000 1267.241007689503249
836.153846153846189 344.487179487179503 1377.299397921628042
835.906250000000000 361.750000000000000 1266.575239826396455
836.026315789473642 379.078947368421041 1321.119373400067161
835.866666666666674 396.166666666666686 1269.577451169487176
835.936170212766001 585.702127659574444 1279.971355810047953
836.734693877550967 603.653061224489761 1276.917619430836339
836.750000000000000 621.384615384615358 1326.194856042660376
836.636363636363626 638.836363636363672 1274.948910557188356
837.967213114754145 30.295081967213115 1253.659815112918523
837.296296296296305 656.777777777777828 1272.006195273987942
837.784313725490165 674.686274509803866 1269.404083901207514
838.537037037037067 692.907407407407391 1373.196447759380590
837.000000000000000 46.750000000000000 1162.873859873812307
838.000000000000000 64.000000000000000 0.000000000000000
839.000000000000000 66.000000000000000 0.000000000000000
848.549019607843093 511.941176470588232 1308.945231150904874
848.368421052631561 477.578947368421041 1306.333176691147173
850.955555555555520 445.733333333333348 1288.456486635303463
850.181818181818130 462.000000000000000 1295.397695554979236
850.428571428571445 531.469387755102048 1296.230264081150835
852.254237288135641 412.372881355932179 1331.868982886397816
851.729166666666629 429.145833333333314 1335.751270110784844
851.574074074074019 549.629629629629676 1341.922968874556318
852.387096774193537 567.822580645161338 1283.763279410238511
853.849315068493183 134.082191780821915 1216.642585638103810
853.350000000000023 586.149999999999977 1230.123177794244839
854.610389610389575 117.935064935064929 943.845430500730004
853.560975609756042 169.439024390243901 1217.545027351308818
853.410256410256466 187.461538461538453 1265.819458384276459
853.357142857142890 204.690476190476204 1266.501156355458079
853.729166666666629 239.812500000000000 1318.771194749796450
853.674418604651123 257.418604651162809 1264.896077329038235
853.480000000000018 292.560000000000002 1218.578173994307008
853.693877551020364 309.877551020408191 1265.079209154149339
853.862745098039227 327.078431372549005 1216.493070431768274
853.666666666666629 344.666666666666686 1265.631035831268264
853.138888888888914 379.388888888888914 1219.223930265043464
853.027777777777828 396.083333333333314 1272.614683981475309
854.015151515151501 603.969696969696997 1384.714952899230639
854.583333333333371 12.625000000000000 1259.491452262921484
855.543859649122851 30.438596491228068 1255.922110901309452
855.753623188405754 48.260869565217391 1309.714677384730521
855.733333333333348 65.973333333333329 943.272904343007667
855.898734177215147 83.405063291139243 918.417976968875450
855.306666666666615 100.719999999999999 1256.071793961147478
853.586206896551744 152.103448275862064 1266.802812210866250
853.904761904761926 222.190476190476204 1372.721270999943499
853.642857142857110 362.321428571428555 1375.835331244072677
854.649999999999977 621.883333333333326 1271.326298537154571
854.949152542372872 639.288135593220318 1270.730074158077514
855.433333333333280 657.250000000000000 1268.515212335429624
855.947368421052602 675.315789473684163 1265.730483989761069
856.540983606557347 693.065573770491824 1314.129478707210865
865.018518518518476 493.814814814814838 1372.227918666401365
866.857142857142890 513.285714285714334 1301.906490341504195
867.581395348837191 462.186046511627922 1293.999471294240720
866.500000000000000 478.166666666666686 1359.105360640037588
868.352941176470608 532.019607843137237 1346.617051645862603
869.388888888888914 429.759259259259238 1280.821932496405907
868.500000000000000 446.000000000000000 1286.707118400223635
870.189655172413836 412.965517241379303 1328.939700009794251
869.500000000000000 550.500000000000000 1400.104370507883687
871.109375000000000 117.484375000000000 1267.389262751566548
870.553191489361666 395.851063829787222 1271.343633961309706
870.457627118644041 568.101694915254257 1231.810832294037255
871.112903225806463 586.354838709677438 1183.123094719901928
872.578947368421041 65.802631578947370 1259.458962296197114
872.343750000000000 83.375000000000000 1260.162105583143784
872.200000000000045 100.400000000000006 1261.289459859101953
870.727272727272748 134.666666666666657 1267.620643631214989
871.212121212121247 152.545454545454533 1267.336317663275850
871.030303030303003 188.272727272727280 1264.570609866537325
871.216216216216253 205.459459459459453 1263.995990406929650
871.369565217391255 222.891304347826093 1264.837477278384995
871.250000000000000 240.375000000000000 1316.776086571262113
871.399999999999977 257.822222222222194 1263.743100505546863
870.500000000000000 292.321428571428555 1267.469060997483211
871.347826086956502 309.978260869565190 1264.574292073607921
871.625000000000000 327.729166666666686 1215.006085021286708
871.162162162162190 379.486486486486513 1267.897402861898627
871.857142857142890 604.158730158730123 1272.511681501030353
872.090909090909122 12.848484848484848 1260.360051862571936
872.489795918367349 30.816326530612244 1315.949151276942530
871.321428571428555 170.678571428571416 1264.025207988892134
871.533333333333303 345.566666666666663 1438.760626919665128
872.423728813559364 622.288135593220318 1269.765561932322498
872.967213114754145 640.049180327868839 1267.414364460589695
872.370370370370324 361.518518518518533 1435.620287755366235
873.379310344827559 657.775862068965466 1265.841139868824030
873.983333333333348 675.583333333333371 1315.100269486253865
882.660714285714334 494.017857142857167 1314.377673460628785
884.639999999999986 513.779999999999973 1249.321512777494945
885.268292682926813 462.439024390243901 1242.307738902343544
884.043478260869620 478.913043478260875 1357.975975742419678
885.870370370370324 532.166666666666629 1241.602390454105034
887.490196078431381 413.176470588235304 1329.316913451401433
887.078431372549062 429.901960784313701 1280.129988707908069
886.214285714285666 446.333333333333314 1285.655500457182370
887.192982456140385 550.526315789473642 1234.634569182540417
888.333333333333371 396.705882352941160 1221.158359480947411
887.915254237288082 568.525423728813507 1185.463621187610215
887.655172413793139 12.448275862068966 1271.785210598857020
889.171875000000000 65.406250000000000 1267.244200598736597
888.816666666666720 82.333333333333329 1268.726189887842111
887.829787234042556 99.702127659574472 1269.130907259892865
887.888888888888914 117.703703703703709 1269.891337981659717
888.693877551020364 240.877551020408163 1263.991717888595758
888.600000000000023 586.666666666666629 1181.554992753130364
889.000000000000000 30.711111111111112 1384.276629393617213
888.259259259259238 135.481481481481495 1267.899733907498103
888.448275862068954 152.586206896551715 1266.711932434533537
888.666666666666629 170.875000000000000 1263.973934535427588
888.645161290322562 188.258064516129025 1264.036401569957434
888.833333333333371 206.199999999999989 1264.098874776352659
888.861111111111086 223.611111111111114 1316.095937445539221
889.000000000000000 258.500000000000000 1263.266806029436566
888.444444444444457 293.222222222222229 1267.918420872971865
889.024999999999977 328.324999999999989 1214.410660818103679
889.000000000000000 345.605263157894740 1262.730342042121038
889.052631578947398 362.815789473684220 1263.890224295668531
888.545454545454504 379.787878787878810 1266.849829743547843
889.396551724137908 604.758620689655118 1325.211237525414617
890.075757575757621 622.757575757575751 1268.291859704785566
890.622950819672155 640.180327868852487 1217.868102752542427
891.092307692307713 657.907692307692287 1216.261390464091846
892.206349206349159 693.555555555555543 1077.405472191048375
892.896551724137908 729.189655172413836 1040.959386160134272
900.000000000000000 494.078431372549005 1213.854141981259772
902.607843137254918 462.588235294117624 1294.247186099537430
901.500000000000000 479.000000000000000 1301.868211125293328
902.000000000000000 513.750000000000000 1299.928518995821605
903.558139534883708 446.558139534883708 1286.746684239598608
903.545454545454504 532.345454545454572 1193.965653212175994
904.875000000000000 413.571428571428555 1275.717624749884180
904.379999999999995 430.100000000000023 1280.664103565392679
904.457627118644041 550.169491525423723 1285.698662728652153
904.982758620689651 568.379310344827559 1282.052158032461421
904.615384615384642 30.384615384615383 1277.757085453918990
903.833333333333371 152.777777777777771 1326.116487997190006
905.620000000000005 396.899999999999977 1271.414458010080125
905.844827586206861 586.310344827586164 1091.684014781123551
904.285714285714334 11.500000000000000 1224.692533047950519
905.375000000000000 47.781250000000000 1272.919960609382088
905.931034482758605 83.379310344827587 1268.547600016997649
903.875000000000000 136.125000000000000 1386.624589213265608
906.575000000000045 241.474999999999994 1262.789011885402488
906.580000000000041 310.639999999999986 1264.087361082314374
906.738095238095184 328.642857142857167 1213.483607653950230
906.128205128205082 380.128205128205138 1267.313027873572764
906.607142857142890 604.410714285714334 1327.756099807684677
906.000000000000000 65.500000000000000 1269.461015954128470
906.173913043478251 101.000000000000000 1267.171272272518308
905.727272727272748 118.090909090909093 1321.854367681648910
904.500000000000000 170.500000000000000 1324.175937143310875
906.500000000000000 189.000000000000000 1265.081407931861122
906.559999999999945 206.919999999999987 1262.188533344484995
906.413793103448256 223.931034482758633 1317.030373663389355
906.593750000000000 258.843750000000000 1263.056835567610278
906.055555555555543 293.666666666666686 1218.453953870288160
906.399999999999977 345.959999999999980 1262.544780565810470
906.419354838709637 363.064516129032256 1174.617030764838546
907.267857142857110 622.535714285714334 1269.650699511235871
907.793103448275815 640.241379310344882 1266.588082161234524
908.580645161290363 658.000000000000000 1215.546530678678664
909.126984126984098 675.603174603174580 1168.584884493255231
909.564516129032313 693.483870967741950 1041.977403182951775
909.983870967741950 711.145161290322562 1164.468437804471250
910.559322033898297 729.033898305084790 1007.288644044953230
917.096153846153811 493.961538461538453 1128.390807500338269
918.586206896551744 478.896551724137908 1303.201675907646177
919.639999999999986 462.759999999999991 1296.284218666367224
918.978260869565247 513.608695652173878 1302.558386930830011
920.697674418604606 446.627906976744214 1287.767553573696659
920.481481481481524 531.907407407407391 1241.807897340130467
922.130434782608745 413.782608695652186 1276.477584097047156
921.521739130434753 430.108695652173935 1282.077972259556645
921.264150943396203 550.113207547169850 1289.162258627084384
922.109090909090924 568.109090909090924 1284.860321772182488
921.740740740740762 30.592592592592592 1228.869366758365004
922.866666666666674 397.066666666666663 1222.671892071316279
922.678571428571445 586.000000000000000 1229.578919403192231
921.789473684210520 12.368421052631579 1283.861226905174590
922.888888888888914 66.296296296296291 1272.171452301169211
923.258064516129025 83.612903225806448 1270.218595364899556
922.759999999999991 136.039999999999992 1270.220439337479547
923.424999999999955 311.050000000000011 1265.135555855057191
923.411764705882320 345.705882352941160 1266.848607347077404
923.437500000000000 380.406250000000000 1267.503890727831958
923.696428571428555 604.125000000000000 1275.153079095960493
923.000000000000000 48.000000000000000 1273.239172245265308
923.047619047619037 101.190476190476190 1270.504142306014728
923.049999999999955 118.900000000000006 1269.024908015197752
922.909090909090878 153.909090909090907 1267.809113936794120
923.090909090909122 171.090909090909093 1218.003547014890501
924.090909090909122 188.969696969696969 1215.888047465289674
923.545454545454504 223.757575757575751 1265.133892824319901
923.685714285714312 241.714285714285722 1317.961729863802475
923.871794871794918 258.871794871794862 1264.830991345202392
923.533333333333303 276.666666666666686 1317.245476949253998
922.600000000000023 295.399999999999977 856.848122249155153
923.464285714285666 328.428571428571445 1214.920171448644169
923.586206896551744 363.275862068965523 1266.342084315949705
924.465517241379303 622.034482758620697 1272.013278835037681
925.311475409836021 639.918032786885192 1267.948121594436088
925.627118644067764 657.830508474576277 1265.774172727625910
923.000000000000000 207.000000000000000 1445.569780296482122
926.500000000000000 675.500000000000000 1212.963834505842442
926.841269841269877 693.095238095238074 1211.089933929413974
927.107142857142890 710.982142857142890 1210.408340791286264
927.589285714285666 728.892857142857110 976.824406973143709
933.562500000000000 493.500000000000000 1266.988907823917089
935.500000000000000 478.500000000000000 1306.156410815444360
936.717948717948730 462.461538461538453 1298.334997759384805
935.419354838709637 513.354838709677438 1308.133322551703941
937.804878048780438 446.585365853658516 1289.105529374542130
936.956521739130380 531.369565217391255 1299.909817998774997
938.931818181818130 430.181818181818187 1282.624910675820729
938.042553191489333 549.319148936170222 1293.645798606876497
938.867924528301842 567.358490566037744 1289.724672579651951
939.674999999999955 413.824999999999989 1276.220595052367798
939.672413793103487 585.224137931034534 1284.871177184694716
939.809523809523853 48.857142857142854 1274.456685805776260
940.030303030303003 397.181818181818187 1271.636119534143745
940.589285714285666 603.339285714285666 1279.665147524869326
939.666666666666629 31.111111111111111 1332.890100688625807
940.250000000000000 66.250000000000000 1333.929105830381559
940.413793103448256 84.068965517241381 1272.020761308174087
940.636363636363626 101.636363636363640 1271.039935566087706
940.437500000000000 119.000000000000000 1391.068960768512397
940.250000000000000 136.562500000000000 1270.151997537913530
939.615384615384642 154.384615384615387 1220.799730913950270
941.121212121212125 223.909090909090907 1319.994667539137254
940.861111111111086 241.500000000000000 1320.006359028396218
941.078947368421041 259.052631578947341 1266.071759612017331
940.964285714285666 345.428571428571445 1318.625034814509036
940.740740740740762 363.592592592592609 1266.478878942255733
940.742857142857133 380.485714285714266 1269.628456811609112
941.309090909090855 621.345454545454572 1275.623807204759487
941.964912280701810 639.192982456140385 1271.995033018595450
940.500000000000000 171.777777777777771 1218.566311264787146
941.043478260869620 276.913043478260875 1264.231637826014776
941.173913043478251 328.478260869565190 1320.028590674724910
942.465517241379303 657.103448275862092 1269.126429084144775
943.440677966101703 674.966101694915210 1215.357743503448091
943.793103448275815 692.568965517241395 1213.170731252498399
944.018518518518476 710.222222222222172 1212.529547341971238
944.649122807017534 727.929824561403507 1210.683684513441449
950.411764705882320 492.666666666666686 1270.413723957451111
950.950000000000045 510.649999999999977 1322.368832671168093
953.571428571428555 462.371428571428567 1300.742809316915555
951.722222222222172 477.833333333333314 1312.047138831879693
952.781250000000000 530.375000000000000 1308.541451106687873
954.636363636363626 446.045454545454561 1293.547383171135152
954.090909090909122 548.477272727272748 1300.450874224983409
955.714285714285666 429.904761904761926 1284.924159235038587
955.021739130434753 566.652173913043498 1296.007410724857664
956.860465116279101 413.581395348837191 1278.717069006007250
956.037037037037067 584.074074074074019 1290.850906625746347
957.777777777777828 224.500000000000000 1323.712505042471321
957.722222222222172 241.555555555555543 1268.670912770164705
956.959183673469397 602.326530612244937 1398.284099381771966
957.750000000000000 620.589285714285666 1281.609468489440133
956.600000000000023 31.399999999999999 1280.352236948117252
957.055555555555543 49.222222222222221 1335.175479111990398
958.255813953488428 66.465116279069761 1221.615159876406778
957.633333333333326 84.366666666666660 1275.219936715125868
957.555555555555543 101.703703703703709 1274.861395019066094
958.171428571428578 259.314285714285688 1267.579067176811577
958.000000000000000 276.500000000000000 1268.523142059253132
957.833333333333371 363.199999999999989 1218.522584198573213
957.633333333333326 380.366666666666674 1270.179155151109399
957.275862068965466 397.275862068965523 1274.588910849540071
958.679245283018872 638.358490566037744 1277.341509828034077
957.899999999999977 118.799999999999997 1275.010017669008221
957.809523809523853 206.952380952380963 1269.391259803052208
958.806451612903174 329.225806451612925 1321.009933821458617
958.148148148148152 346.222222222222229 1266.453051806062376
959.263157894736878 656.192982456140385 1326.138633494434089
959.943396226415075 674.264150943396203 1322.320716345476740
960.500000000000000 691.785714285714334 1377.149026950167809
960.803571428571445 709.214285714285666 1375.896784316008961
961.264150943396203 727.037735849056617 1214.176925506961652
959.000000000000000 187.500000000000000 1219.599397740944596
966.285714285714334 509.285714285714278 1275.347880043706709
969.594594594594582 461.297297297297291 1308.210356344698994
968.709677419354875 477.483870967741950 1317.777181626138827
968.500000000000000 529.000000000000000 1321.257063871991477
971.418604651162809 445.023255813953483 1244.432862222864742
970.090909090909122 546.954545454545496 1368.002513786522286
972.239130434782624 429.021739130434810 1292.935083904739486
975.200000000000045 67.033333333333331 1276.380358646207924
975.307692307692264 84.560439560439562 1177.038902514649862
975.238636363636374 101.681818181818187 1176.932984936320963
975.138888888888914 118.597222222222229 1176.414924032367935
974.454545454545496 135.327272727272714 1094.704681817296205
972.972222222222172 413.388888888888914 1285.865843776673955
973.290322580645125 567.161290322580612 1292.217405565380204
974.133333333333326 585.093333333333362 1285.374144046259516
974.799999999999955 49.399999999999999 1330.254699968364093
974.266666666666652 311.366666666666674 1175.941123162340773
974.100000000000023 396.966666666666640 1277.082240582808254
973.000000000000000 13.500000000000000 1342.818979854929239
973.909090909090878 31.909090909090910 1287.273898377451815
974.500000000000000 172.000000000000000 1273.533969548708455
974.633333333333326 189.366666666666674 1273.899148522492169
974.592592592592609 224.074074074074076 1272.230242939069740
974.914285714285711 241.685714285714283 1326.679473861622455
974.945945945945937 259.189189189189165 1270.708837531901963
975.242424242424249 276.696969696969688 1054.535874224234931
974.696969696969745 328.242424242424249 1327.050166561124570
975.000000000000000 345.897435897435912 1270.373892647675802
975.108108108108127 363.027027027027032 1220.497563667546956
974.914285714285711 380.342857142857156 1273.154966734153049
976.788461538461547 620.759615384615358 1178.642761597628351
977.504587155963350 638.825688073394531 1131.777932111401014
978.208695652173901 656.704347826086973 1268.210012815074833
974.500000000000000 154.222222222222229 1275.305636979452629
975.111111111111086 207.277777777777771 1271.440579230316189
978.697916666666629 674.916666666666629 1170.348332561466123
978.905882352941148 691.929411764705833 1316.481206750438787
977.044444444444480 708.577777777777783 1322.182145430933133
977.673469387755063 725.693877551020364 1319.610208006217817
984.100000000000023 475.949999999999989 0.000000000000000
984.739130434782624 528.608695652173878 1326.329545650546606
985.714285714285666 460.500000000000000 1318.361653554811937
987.392156862745082 546.843137254901990 1311.565945357220244
989.268656716417922 565.820895522388014 1300.118335510884435
991.952380952380963 136.761904761904759 1278.258307180181191
